# .PCD v0.7 - Point Cloud Data file format
VERSION 0.7
FIELDS x y z rgb
SIZE 4 4 4 4
TYPE F F F F
COUNT 1 1 1 1
WIDTH 892
HEIGHT 1
VIEWPOINT 0 0 0 1 0 0 0
POINTS 892
DATA ascii
-13.10112266 23.69889909 -6.195037031 1.124677383e-38
-13.10126554 23.39840891 -5.996207447 1.060140302e-38
-13.07660838 24.09226483 -6.496144359 1.152371805e-38
-13.07463004 24.19908409 -6.595998595 1.29066539e-38
-13.10104871 23.79895275 -6.295442284 1.189214324e-38
-12.85644334 24.29991691 -6.69847758 5.251876068e-39
-13.09021663 23.19861577 -5.897547562 7.466751605e-39
-13.07232761 22.99934619 -5.811656234 8.573820832e-39
-13.07457057 24.29645226 -6.695843478 1.327543642e-38
-13.10126954 23.29912944 -5.995319879 1.060140302e-38
-13.10097376 23.89869696 -6.395412799 1.189250057e-38
-13.09023385 23.09765709 -5.897431941 8.020284116e-39
-13.10112119 23.59836608 -6.195721988 1.11545782e-38
-13.0725744 22.90032007 -5.811743243 8.666017863e-39
-13.10105524 23.69908754 -6.295919488 1.170775058e-38
-13.10090733 23.99914664 -6.49557469 1.309068643e-38
-12.86013 24.29908544 -6.640268819 1.105618743e-38
-13.10127453 23.19946755 -5.995652117 9.679085187e-39
-13.10113532 23.49901365 -6.195778487 1.11545782e-38
-13.10098403 23.79893545 -6.396102121 1.170774918e-38
-13.07657581 24.09254591 -6.596029653 1.189250057e-38
-13.07458511 24.19850473 -6.696082327 1.318360092e-38
-13.09029234 22.99822117 -5.897401989 8.020285518e-39
-13.07286777 22.80003738 -5.812259848 8.850409123e-39
-13.1012048 23.29895795 -6.096546228 1.087798991e-38
-13.10106592 23.59891919 -6.295507952 1.152336072e-38
-13.10091502 23.89933563 -6.496400115 1.309104516e-38
-13.10128443 23.09861951 -5.995681893 1.060140302e-38
-13.10114035 23.39967197 -6.195543343 1.11545782e-38
-13.10098876 23.69859561 -6.395297133 1.143116229e-38
-13.072564 23.39871596 -5.811909312 8.573462099e-39
-13.07273374 22.69979249 -5.812089034 8.573820832e-39
-13.10119081 23.59915216 -6.095688823 1.087798991e-38
-13.09010557 22.90015976 -5.897210223 8.204676777e-39
-13.10121196 23.19932742 -6.095094167 9.95603221e-39
-13.10083999 23.99838926 -6.595649145 1.345982768e-38
-12.89989534 22.89891884 -5.803033748 9.126996012e-39
-13.10107205 23.49842059 -6.295636403 1.143116509e-38
-13.10128511 22.99748231 -5.995378697 1.069359865e-38
-13.10125177 23.69947343 -5.995181725 1.050956612e-38
-13.06480362 24.29688113 -6.795668192 1.253786718e-38
-13.00008752 22.49888569 -5.803176443 9.495777131e-39
-13.1009198 23.7987157 -6.495269032 1.281409954e-38
-12.8486171 23.3562305 -5.802686887 8.389789706e-39
-13.10115039 23.298209 -6.19565076 1.115493693e-38
-13.07287594 23.69802596 -5.812038976 7.836255793e-39
-13.07269669 22.59860372 -5.812231795 9.311385871e-39
-13.09015123 22.8000552 -5.897378347 8.481263667e-39
-13.07645105 24.09236403 -6.695963681 1.207689323e-38
-13.10100099 23.59889877 -6.396446193 1.124677103e-38
-13.10122475 23.09939005 -6.095879687 1.097054567e-38
-13.10130988 22.89896766 -5.99554534 1.078579568e-38
-13.10108155 23.39883969 -6.295632292 1.152300059e-38
-13.10083553 23.89901312 -6.595690358 1.355166458e-38
-13.05239126 24.29919034 -6.89597188 1.382860179e-38
-13.06507122 24.1984012 -6.795092446 1.253786718e-38
-13.00046232 22.39903152 -5.8032181 9.403943036e-39
-13.07267656 22.49750956 -5.812137588 9.495777131e-39
-13.10120817 23.39841627 -6.095548627 1.087798991e-38
-13.09035061 22.69865965 -5.897736363 8.296512274e-39
-13.10116061 23.19936888 -6.196066803 1.02326191e-38
-12.9406998 23.57631864 -5.803039796 8.666377997e-39
-13.1009246 23.69928464 -6.496340027 1.253751125e-38
-13.06666877 24.09552844 -6.792931783 1.189213763e-38
-13.10123747 22.9984777 -6.095836191 1.10627413e-38
-13.10100809 23.49897613 -6.395138128 1.106238117e-38
-13.10075702 23.99919314 -6.695952594 1.355202471e-38
-13.10129796 22.79955869 -5.995211937 1.097018694e-38
-13.10108353 23.2992718 -6.295730773 1.152336072e-38
-13.10118991 23.49927685 -6.095617641 1.087798991e-38
-13.07272356 22.39733762 -5.812193096 9.68016839e-39
-13.10117476 23.69852453 -6.095770433 1.087798991e-38
-13.09034156 22.59827855 -5.897756724 8.942241816e-39
-13.10085261 23.79937533 -6.596343802 1.318288206e-38
-13.10116647 23.10006507 -6.195917564 1.143116509e-38
-13.10093031 23.59886224 -6.495342494 1.226092436e-38
-13.05239717 24.19912605 -6.896274932 1.382824306e-38
-13.10123601 22.89855939 -6.095855652 1.124677383e-38
-13.10100759 23.39869369 -6.396269187 1.106238117e-38
-13.04883735 22.14463096 -5.803435325 9.21991191e-39
-13.10131137 22.698938 -5.996185735 1.115493833e-38
-13.07340204 23.99874442 -6.798654014 1.198397313e-38
-12.85628759 24.29982436 -6.897050125 4.5150355e-39
-13.02058181 22.21263335 -5.803251102 8.666019264e-39
-13.05237689 23.19990665 -6.896282628 1.235274864e-38
-13.10065881 23.89906576 -7.19615248 1.677887456e-38
-13.10109418 22.29801867 -6.395495803 1.263006701e-38
-13.10119101 22.6999532 -6.19560369 1.207689323e-38
-12.92382666 23.49223279 -5.803027716 8.758213493e-39
-13.07621128 24.09251858 -7.296353256 1.263006841e-38
-13.10101862 22.49966494 -6.495416173 1.373641597e-38
-13.10111728 22.897005 -6.296215056 1.226092436e-38
-13.10131512 22.14131624 -6.077553916 1.1984699e-38
-13.08013025 23.29899944 -6.99311389 1.244531562e-38
-13.1006642 23.79909895 -7.196246417 1.641009204e-38
-13.10110546 22.22451142 -6.391782844 1.207616876e-38
-12.80127242 23.09808408 -5.802908925 8.850409123e-39
-13.10132985 22.59901778 -5.995362328 1.133932959e-38
-13.10097318 23.09962435 -6.496249631 1.253751125e-38
-13.10059405 23.89898117 -7.296287647 1.65944833e-38
-12.8162576 23.19357229 -5.802910427 8.021008588e-39
-13.10103417 22.29917776 -6.495559094 1.373641737e-38
-13.10114847 22.69834646 -6.296115351 1.262970828e-38
-13.10095531 22.49916334 -6.595559509 1.410483976e-38
-12.82593 24.32327048 -6.887411361 3.872206645e-39
-13.10059879 23.79895053 -7.296288393 1.622570078e-38
-13.10069497 22.60077815 -7.292540851 1.668704046e-38
-13.10104926 22.23687639 -6.487745433 1.364422174e-38
-13.07439473 24.17790381 -7.282043535 1.364422174e-38
-13.10095705 22.39945304 -6.595095002 1.419703539e-38
-13.10118195 22.7987734 -6.195688844 1.189250197e-38
-13.05236278 23.09876158 -6.895898085 1.262969567e-38
-13.10079914 23.49897097 -6.696252856 1.253750985e-38
-13.10090919 23.09845899 -6.59577974 1.281409954e-38
-13.10082655 23.29841839 -6.695524389 1.253751125e-38
-13.10066875 22.89885837 -7.296051235 1.622606091e-38
-13.10088634 22.49842647 -6.695661026 1.438178678e-38
-13.10087587 22.31710627 -6.759812358 1.419739832e-38
-13.0523255 22.4992796 -6.896026747 1.419738571e-38
-13.10074977 22.6989299 -7.196027053 1.687107159e-38
-13.10097205 22.30038866 -6.595560497 1.419703679e-38
-13.07446611 24.27097256 -7.17408375 1.38286144e-38
-13.10091607 22.99804927 -6.595816414 1.299885093e-38
-13.00012552 22.69836654 -5.80315174 8.666016462e-39
-13.10073864 23.69900993 -7.096131603 1.604130952e-38
-13.10078122 23.0985259 -7.09589912 1.594911389e-38
-13.05242524 23.49840753 -6.895898163 1.189176909e-38
-13.10070601 23.29880401 -7.196173533 1.548813434e-38
-13.10085767 23.69860357 -6.595329492 1.281445827e-38
-12.85632098 24.29987936 -6.797685932 5.344070296e-39
-13.08002156 23.19890706 -6.992802201 1.244531422e-38
-12.90027293 23.09899679 -5.803026539 8.850767855e-39
-13.10087174 23.59944668 -6.596266207 1.253751125e-38
-13.10078962 22.99794144 -7.096023738 1.622570078e-38
-12.90537937 23.39579233 -5.8030116 8.666017863e-39
-13.10056148 23.99904859 -7.296327655 1.65944847e-38
-13.10103228 22.39802969 -6.495403889 1.373641737e-38
-13.10124008 22.79907357 -6.095083288 1.143116509e-38
-13.10099133 22.24498592 -6.559965547 1.39204499e-38
-13.10119816 22.59848379 -6.19545113 1.226128449e-38
-13.00013403 22.89874564 -5.803162303 9.035159115e-39
-13.08029845 23.09905963 -6.9932135 1.309104516e-38
-13.07311229 23.4995754 -6.799186865 1.09698184e-38
-12.89964896 23.1992341 -5.803037096 8.112844084e-39
-13.10076676 23.29913456 -7.096179423 1.558032997e-38
-13.05243362 23.69867088 -6.895982076 1.235274864e-38
-13.10062359 23.49884718 -7.296163436 1.530374308e-38
-13.1008331 23.09912208 -6.696102705 1.29984908e-38
-13.00025787 22.5987411 -5.803157181 9.403581501e-39
-13.07403761 22.79876001 -6.797961492 1.235311718e-38
-13.10074598 23.59895405 -7.096097867 1.576472123e-38
-13.10077465 22.41524329 -7.193252708 1.696362735e-38
-13.10082763 23.19957027 -6.695970625 1.179958467e-38
-12.90034434 23.29875969 -5.803022206 8.666376595e-39
-13.05234693 22.99769162 -6.896057432 1.299847959e-38
-13.05241045 23.39892635 -6.89617843 1.189176909e-38
-13.10069702 23.39902027 -7.19616747 1.539593871e-38
-13.07301764 22.99910969 -6.799114194 1.170774497e-38
-12.85644479 24.29971428 -6.967389972 4.606510863e-39
-13.10070925 23.19857315 -7.196193344 1.502715339e-38
-13.07331016 23.59994336 -6.798621745 1.115420966e-38
-13.10064603 23.19949043 -7.295913344 1.484276353e-38
-13.0007113 23.49859388 -5.803129819 8.850409123e-39
-13.10137027 22.13138103 -5.990214487 1.180030774e-38
-13.07496394 24.19753278 -6.098207093 1.060140022e-38
-13.10089738 22.39819435 -6.695873568 1.447398241e-38
-13.10080187 22.79882418 -7.096117646 1.677887456e-38
-13.08022082 23.49882355 -6.993139157 1.235311859e-38
-13.05232 22.69862353 -6.895977898 1.401299305e-38
-13.10065658 23.09957161 -7.296225996 1.576472263e-38
-13.05234464 22.41297103 -6.893081259 1.401299445e-38
-13.10067487 22.79876734 -7.29619657 1.650228907e-38
-13.08017098 23.39885265 -6.993124649 1.226128309e-38
-13.10080636 22.59999507 -7.095918709 1.705546285e-38
-13.10066184 22.99924422 -7.296178942 1.604130952e-38
-13.05231375 22.59756061 -6.896060684 1.419702558e-38
-13.05230921 22.79930861 -6.89633179 1.373604603e-38
-13.1006797 23.59896909 -7.19614905 1.576472123e-38
-13.10072657 22.42415008 -7.267316699 1.677887736e-38
-13.07356335 23.19928507 -6.798512361 1.078542854e-38
-13.00040309 22.79828851 -5.803167729 9.127354745e-39
-13.08070957 22.99869466 -6.993453621 1.355202331e-38
-13.10088148 23.39889595 -6.595918825 1.226092436e-38
-13.08032844 22.59871615 -6.993231217 1.456617804e-38
-13.10063119 23.39881752 -7.296469919 1.521154745e-38
-13.10098415 22.99895547 -6.495351175 1.272226264e-38
-13.1008733 22.59814353 -6.695839665 1.419739552e-38
-13.09042698 22.1986857 -5.89799703 8.757490423e-39
-13.10109834 22.99901426 -6.295448212 1.19846976e-38
-13.10079676 23.79889974 -6.695812807 1.345946895e-38
-13.08575961 22.40568298 -6.997759356 1.521190758e-38
-12.84448689 24.30502129 -6.959529138 4.148796337e-39
-13.00011579 23.29905365 -5.80314907 8.758573627e-39
-13.10075558 22.5992468 -7.196076663 1.696326722e-38
-13.07446352 24.19829725 -7.195848433 1.382897314e-38
-13.10076212 23.39915274 -7.096053547 1.548813434e-38
-13.10087897 22.69881458 -6.69548121 1.392080863e-38
-13.10128547 22.29959079 -6.095958767 1.216908886e-38
-13.05241983 23.89896152 -6.896076436 1.309031508e-38
-13.10068344 22.34326704 -6.998424759 1.668704187e-38
-13.07416081 22.49990179 -6.797549712 1.29066511e-38
-13.08033821 22.89814736 -6.993398364 1.38286116e-38
-13.07493262 24.27421763 -6.121500669 1.069359585e-38
-13.10074214 22.79879879 -7.196359719 1.668668033e-38
-13.10075215 23.49907579 -7.096142927 1.558032997e-38
-13.07992509 22.6997615 -6.993032781 1.438178538e-38
-13.10067372 23.69892335 -7.196228814 1.604130812e-38
-13.1007973 22.89834402 -7.096270602 1.650228767e-38
-13.10063721 23.29897428 -7.296269749 1.530374308e-38
-13.10070835 22.50254291 -7.278885419 1.677887736e-38
-13.1009552 23.29977085 -6.495785656 1.216872873e-38
-13.1007641 22.49968334 -7.19606461 1.696362735e-38
-13.10061573 23.59901974 -7.296172631 1.558032997e-38
-13.07997924 22.79920811 -6.992872157 1.410519849e-38
-13.10060723 23.69906696 -7.296331184 1.585691826e-38
-13.07387733 22.89851559 -6.798025926 1.207652889e-38
-13.10068736 23.49922342 -7.195904978 1.558032997e-38
-13.10081729 22.69928971 -7.095837785 1.696326582e-38
-13.0748421 24.19890325 -6.295650711 1.170774918e-38
-13.07530465 22.12744817 -5.813533365 9.864558249e-39
-13.10089694 22.30993982 -6.693634346 1.447398241e-38
-13.10068484 22.69858288 -7.2964519 1.659484483e-38
-12.84275922 24.31166991 -6.717842971 4.240626228e-39
-13.08019867 22.49819973 -6.993333456 1.465837367e-38
-12.9997666 23.19871341 -5.803141891 8.205039714e-39
-13.10073435 22.89851936 -7.196034576 1.650228767e-38
-13.09127772 22.12674714 -5.898552531 9.495056863e-39
-13.10072062 23.09842028 -7.19619588 1.594911249e-38
-13.10077559 23.19903955 -7.096090882 1.521118591e-38
-13.10080309 23.59838662 -6.695361815 1.272190391e-38
-13.1007259 22.99832755 -7.196143282 1.622570078e-38
-13.07372427 23.39808373 -6.798031006 1.087762417e-38
-13.07635538 24.0923786 -7.196188874 1.281445967e-38
-13.10108113 22.49859775 -6.396039 1.262970828e-38
-13.10086209 22.79821921 -6.69590672 1.373641597e-38
-13.10109259 23.19819898 -6.296420306 1.078543274e-38
-13.10065072 23.9988443 -7.196263914 1.677887456e-38
-13.10108894 22.39939562 -6.395639617 1.263006701e-38
-13.10094362 22.59866327 -6.596009564 1.39204485e-38
-13.08024866 23.79904687 -6.993080067 1.318288066e-38
-13.10122822 22.20467175 -6.193541037 1.152371665e-38
-13.10073153 23.7989907 -7.096179096 1.641009064e-38
-13.10117839 22.21496393 -6.293262694 1.124676963e-38
-13.10112193 22.59788357 -6.295764269 1.272226404e-38
-13.00049516 22.2996031 -5.803228466 9.403943036e-39
-13.05239278 23.29940114 -6.895996725 1.207616035e-38
-13.10075761 23.69934053 -6.696492023 1.309068643e-38
-13.10086242 22.89830603 -6.695942698 1.345982908e-38
-12.83060264 24.32157197 -6.802114638 3.780009614e-39
-13.10126773 22.49772283 -6.095459541 1.198433887e-38
-13.05240552 24.09903377 -6.896130407 1.373604603e-38
-13.08025388 23.59905269 -6.992959165 1.253751125e-38
-13.1007714 22.40338607 -7.094063737 1.714765848e-38
-13.10089914 23.19822861 -6.596103256 1.161555355e-38
-13.07378074 23.09934602 -6.798178361 1.152299498e-38
-13.10087582 23.49875031 -6.595615216 1.235311859e-38
-13.03164091 23.78980392 -5.803146731 8.573823634e-39
-13.10094226 22.69822793 -6.59552032 1.373641597e-38
-13.10133241 22.29785711 -5.99482213 1.189214464e-38
-13.10103058 23.09937686 -6.395628179 1.152335792e-38
-13.07333799 23.89942771 -6.798746276 1.207616736e-38
-13.1007219 23.89904401 -7.096173652 1.677887316e-38
-13.10115954 22.29861266 -6.295910107 1.299885093e-38
-13.10125193 22.69958928 -6.095892776 1.161555635e-38
-13.10085079 22.99879655 -6.695655114 1.318324219e-38
-13.10079341 23.39915307 -6.696118035 1.244531422e-38
-13.10093127 22.79814184 -6.595692374 1.355166598e-38
-13.08026129 23.99894735 -6.993129475 1.309104516e-38
-13.10121392 22.39904643 -6.196064562 1.253751265e-38
-13.05232488 22.89817404 -6.895790947 1.336726351e-38
-13.08028628 23.69908541 -6.993107359 1.281445687e-38
-13.10078613 22.49921636 -7.095809397 1.714765848e-38
-13.07355231 23.29849442 -6.798355266 1.09698198e-38
-13.10100802 22.59991279 -6.495922181 1.355202611e-38
-13.10092481 22.89885073 -6.595203216 1.327543782e-38
-13.10101725 23.29847598 -6.395408877 1.124677103e-38
-13.10071636 23.99903782 -7.096090251 1.668667753e-38
-13.1011407 22.3999248 -6.295601967 1.29984922e-38
-13.10100782 22.6991681 -6.495140083 1.336763345e-38
-13.09037025 22.29749203 -5.897605902 9.495415596e-39
-13.10110312 23.09833314 -6.295185728 1.180030634e-38
-13.10077989 23.89858888 -6.69559697 1.373641597e-38
-13.10099294 22.79800506 -6.495831938 1.318324219e-38
-13.04608454 23.86472322 -5.803180705 8.38979391e-39
-13.10127613 22.39800782 -6.095025034 1.207689463e-38
-13.05240474 23.99892993 -6.896107347 1.336726211e-38
-13.05243649 23.59839952 -6.895807282 1.207616035e-38
-13.10096616 23.1994943 -6.495837318 1.152299778e-38
-13.10107264 22.59835895 -6.395244644 1.244567575e-38
-13.10134489 22.19913676 -5.996515352 1.078579288e-38
-13.10104393 22.99941274 -6.395709123 1.170810931e-38
-13.073913 23.7989707 -6.797952067 1.179958047e-38
-13.07636458 24.09248692 -7.096174925 1.29066553e-38
-13.1011531 22.49919911 -6.295817501 1.290629657e-38
-13.08018297 23.8988516 -6.993103702 1.336727192e-38
-13.10122174 22.30015106 -6.195406369 1.253787278e-38
-13.10098658 22.89775397 -6.495694432 1.29984908e-38
-13.09026741 22.49801911 -5.897632118 9.126633076e-39
-13.10106318 22.69911793 -6.395917012 1.226128449e-38
-13.10106669 22.79877489 -6.395765153 1.207689323e-38
-13.10134715 22.39770145 -5.995522747 1.179994901e-38
-13.10128935 22.20004822 -6.09571598 1.10627385e-38
-13.05242123 23.7988772 -6.896039321 1.272153116e-38
-13.10125828 22.59870912 -6.095015826 1.179994761e-38
-13.07452349 24.19911019 -7.096230735 1.401300426e-38
-13.10120301 22.49822128 -6.195156776 1.235348152e-38
-13.10104968 22.89871 -6.395682839 1.189250057e-38
-13.06686829 24.09489478 -6.996610434 1.161555355e-38
-13.10089403 23.2985887 -6.595720604 1.235347872e-38
-13.07337851 23.69880818 -6.79875261 1.143079795e-38
-13.10110419 22.79651548 -6.295929528 1.244531702e-38
-13.09024958 22.39763118 -5.897580356 9.311025737e-39
-13.06483286 24.19866743 -6.994875145 1.226092436e-38
-13.10117128 22.99866658 -6.195586141 1.161519622e-38
-13.10103359 23.1986166 -6.395724865 1.069359725e-38
-12.89993871 22.79925197 -5.803058974 9.311746005e-39
-13.10095226 23.3992494 -6.4956823 1.19846976e-38
-13.10132404 22.49819705 -5.99515139 1.161555775e-38
-12.80007686 22.9989296 -5.802911426 9.034800383e-39
-13.10116921 22.89783132 -6.196375705 1.179994621e-38
-13.00013384 23.39868913 -5.803134109 8.850409123e-39
-13.0646123 24.29745983 -6.994474194 1.226128449e-38
-13.07256677 22.19897258 -5.811685869 9.034798981e-39
-13.10094216 23.49916771 -6.496002054 1.20765331e-38
-13.07273557 22.2980379 -5.812289025 9.86455965e-39
-13.07475732 24.07419455 -5.817483235 9.21846577e-39
-13.07509718 24.17672916 -5.913423481 9.863835179e-39
-12.74146241 23.18279321 -5.802878851 7.651867336e-39
-12.82007633 24.49039921 -6.810775727 1.106346718e-38
-12.83231049 23.39697433 -5.802918657 8.481626603e-39
-13.07233863 24.00437582 -5.808493688 8.389429572e-39
-13.07510101 24.10276822 -5.887021297 9.771638148e-39
-13.07504073 24.20419096 -5.985917978 1.032481193e-38
-12.81675951 24.47612883 -6.847355852 1.152444392e-38
-13.07145891 23.9056308 -5.808134559 8.48126647e-39
-13.07503929 24.10700892 -5.982382456 1.01407808e-38
-13.0877524 24.00759645 -5.888632244 7.743697227e-39
-12.83006713 24.32182598 -6.689287307 4.425377622e-39
-13.08809122 23.90717518 -5.887731451 7.928088487e-39
-13.0749102 24.2067638 -6.183501849 1.124713116e-38
-13.07152788 23.70666517 -5.808186974 7.836257194e-39
-13.0980515 24.01169206 -5.983096275 9.67944532e-39
-13.08826319 23.80694283 -5.887853435 7.927728353e-39
-13.07125453 23.60753684 -5.807851918 8.573820832e-39
-13.10123133 23.90647962 -5.983238163 1.060140302e-38
-13.07490922 24.10686898 -6.182465799 1.115493553e-38
-13.09818019 24.01148266 -6.082911412 1.032481473e-38
-13.07484292 24.20670439 -6.28287909 1.189249917e-38
-13.08825652 23.70613108 -5.888033825 7.374555975e-39
-13.10116337 23.9066156 -6.082390744 1.11545768e-38
-12.90073444 23.1067246 -5.803021817 8.758573627e-39
-13.07485327 24.10650164 -6.283032478 1.179994481e-38
-13.08847876 23.60623077 -5.888523475 7.835892857e-39
-13.00916887 23.8022882 -5.803094724 8.758213493e-39
-13.09789371 24.01189028 -6.183174957 1.087798851e-38
-13.07129291 23.40672365 -5.807896842 8.573820832e-39
-13.1012539 23.70740194 -5.982246826 1.060140302e-38
-13.07478459 24.20655397 -6.382295454 1.235347872e-38
-13.07470822 24.30023818 -6.483077532 1.29066539e-38
-13.08807338 23.50703449 -5.887495145 7.835892857e-39
-13.07496628 24.20642921 -6.082355868 1.078579148e-38
-13.00017424 23.20668993 -5.803143982 8.113204218e-39
-13.07146771 23.30502174 -5.807934632 8.573820832e-39
-13.00008476 23.70709591 -5.803091484 8.205399847e-39
-13.10110677 23.90633509 -6.183433868 1.170775058e-38
-13.10124983 23.60621098 -5.982815694 1.060140302e-38
-13.07478843 24.10672683 -6.383644408 1.226128169e-38
-13.09813488 24.0109843 -6.2838138 1.152335792e-38
-13.07497859 24.10657952 -6.08333215 1.069359585e-38
-13.00071385 23.10653447 -5.803148939 8.850409123e-39
-13.07157275 23.2057056 -5.808257637 7.836255793e-39
-13.08825232 23.40709285 -5.887777632 7.835534124e-39
-13.0747155 24.20675415 -6.482802375 1.281445827e-38
-13.101111 23.80687432 -6.182367041 1.152300059e-38
-13.10124795 23.50568034 -5.98294847 1.060140302e-38
-13.07466951 24.30046128 -6.583228262 1.327579515e-38
-13.10104271 23.90674987 -6.282610636 1.226092436e-38
-13.07120814 23.10740317 -5.808023318 8.481625202e-39
-13.08828587 23.30668807 -5.888030485 7.743698628e-39
-13.07472136 24.10682205 -6.482738498 1.263006561e-38
-13.10127058 23.4069385 -5.982203178 1.050956612e-38
-13.09788518 24.01165757 -6.382047907 1.133896666e-38
-13.08830794 23.20587447 -5.888124441 7.098329219e-39
-13.101116 23.70661128 -6.182591281 1.133896806e-38
-13.07135363 23.00776718 -5.807956569 8.481626603e-39
-13.10104723 23.80651208 -6.283340894 1.198433747e-38
-13.07463847 24.20669502 -6.583250904 1.318359952e-38
-12.82032547 24.32624587 -6.9801483 4.886718707e-39
-13.10126611 23.30775933 -5.983203881 1.050920739e-38
-12.85641549 24.29999365 -6.683052518 5.713215752e-39
-13.10112547 23.60686501 -6.18311453 1.11545782e-38
-13.10097741 23.90673483 -6.383623824 1.20765317e-38
-13.07471245 24.30171226 -6.683295343 1.364422034e-38
-13.07129459 22.90736634 -5.807789552 8.573822233e-39
-13.08863246 23.10641377 -5.88914557 7.743338494e-39
-13.10120077 23.40616346 -6.083631488 1.087798991e-38
-13.10106236 23.70647196 -6.282123799 1.179958748e-38
-13.10127646 23.20653284 -5.982132704 9.67944532e-39
-13.09772091 24.01167604 -6.483560765 1.244531562e-38
-13.07466168 24.10656139 -6.582550674 1.299920826e-38
-13.10114201 23.50717396 -6.182528219 1.10627413e-38
-13.07134976 23.5072081 -5.808022579 8.573820832e-39
-13.07151131 22.80652054 -5.808024614 8.758213493e-39
-13.10117796 23.70636323 -6.082779673 1.097018554e-38
-13.08803427 23.00719538 -5.887073251 7.743698628e-39
-13.10097987 23.80651681 -6.382569236 1.179994481e-38
-13.10121329 23.3069227 -6.08218998 1.078579568e-38
-13.07456973 24.20686559 -6.683404928 1.355202331e-38
-12.85651325 24.30001089 -6.582911428 5.620659988e-39
-12.90001925 23.00688454 -5.80304034 8.850767855e-39
-13.10105886 23.60627206 -6.282944414 1.161519622e-38
-13.10128357 23.10554619 -5.982661923 1.041737189e-38
-13.10090926 23.90627098 -6.482440976 1.327507769e-38
-13.10122953 23.80715575 -5.982573233 1.060140302e-38
-12.84687066 23.46997982 -5.802812979 8.666019264e-39
-13.10114125 23.40625644 -6.182754425 1.10627413e-38
-13.00016511 22.60662049 -5.803189966 9.219191642e-39
-13.07133073 23.80526571 -5.807729249 8.481625202e-39
-13.07147665 22.70599076 -5.808094592 8.205039714e-39
-13.0882584 22.90780946 -5.887700098 7.835895659e-39
-13.10121648 23.20717688 -6.082237258 1.014042207e-38
-13.10099543 23.70682039 -6.383077256 1.143116369e-38
-13.10106735 23.50644365 -6.283149909 1.143080636e-38
-13.0977063 24.01171839 -6.583389236 1.281409814e-38
-13.10128416 23.00532407 -5.983218799 1.050920739e-38
-13.07460178 24.10658855 -6.682990818 1.336763205e-38
-13.06822135 24.3025775 -6.780762137 1.2998488e-38
-13.00000605 22.50683172 -5.803192775 9.219551776e-39
-13.07125498 22.60545389 -5.808078644 9.126994611e-39
-13.10115522 23.30715317 -6.182815922 1.10627413e-38
-13.10120023 23.50621921 -6.082321406 1.087798991e-38
-13.08823191 22.80773906 -5.887985976 8.112481148e-39
-12.93838788 23.68824896 -5.803019278 8.020649855e-39
-13.10092222 23.80689271 -6.483445159 1.29066539e-38
-13.06876084 24.20688256 -6.779345777 1.29066525e-38
-13.10121985 23.10594719 -6.08289181 1.087798991e-38
-12.8597256 24.2992329 -6.527024542 9.857293917e-39
-13.10099682 23.60643121 -6.382631665 1.124677243e-38
-13.10129911 22.90695312 -5.9826409 1.060140442e-38
-13.101081 23.4068806 -6.282864625 1.143080496e-38
-13.10119346 23.6071172 -6.08255414 1.087798991e-38
-13.07141422 22.50596162 -5.807926234 9.219190241e-39
-13.10084921 23.90685332 -6.58325789 1.364422034e-38
-13.10117397 23.80588461 -6.082906218 1.097054567e-38
-13.0883663 22.70664352 -5.887966611 7.835895659e-39
-13.10114946 23.20751924 -6.182770446 1.02326177e-38
-13.10092496 23.70645892 -6.48245675 1.253787138e-38
-13.10122661 23.00485468 -6.08308749 1.087835004e-38
-13.05239678 24.30702868 -6.883294288 1.419738571e-38
-13.10130381 22.80820721 -5.982398772 1.069395878e-38
-13.10101137 23.50638087 -6.383140128 1.106237977e-38
-13.06869234 24.10699519 -6.779475879 1.272225984e-38
-13.07141406 22.40682918 -5.808018462 9.403581501e-39
-13.09767182 24.01148384 -6.682593417 1.29984894e-38
-13.10065438 22.74904158 -7.334814005 1.576508276e-38
-13.02104135 22.32052954 -5.803205175 9.127357547e-39
-13.05237415 23.30758806 -6.88362886 1.189176909e-38
-13.09748772 24.01165784 -7.183336675 1.57643625e-38
-13.10108263 22.40570305 -6.382646333 1.226092576e-38
-13.10117182 22.80632823 -6.183011195 1.161591648e-38
-12.92088972 23.60048302 -5.802996079 8.758213493e-39
-13.07439497 24.20665758 -7.283411606 1.428959115e-38
-13.10101003 22.60726983 -6.482981394 1.318324359e-38
-13.10111417 23.00619287 -6.28288712 1.179994761e-38
-13.10128188 22.24828176 -6.070065887 1.170811211e-38
-13.07504667 23.40639527 -6.982732196 1.189213904e-38
-13.1006613 23.90679625 -7.183602491 1.705546145e-38
-13.1011273 22.33101381 -6.378458818 1.226092576e-38
-12.80034281 23.20605211 -5.802903007 8.020648454e-39
-13.10130492 22.70722294 -5.983343593 1.087835144e-38
-13.10096695 23.2067114 -6.483466655 1.11545754e-38
-13.09733787 24.01169776 -7.283437528 1.558032997e-38
-12.8134642 23.30129983 -5.802921492 8.573822233e-39
-13.10102072 22.40710717 -6.482646657 1.336763485e-38
-13.10111703 22.80709351 -6.282934612 1.216872873e-38
-12.84254621 24.31232504 -6.603547596 4.793800008e-39
-13.10095267 22.60710033 -6.583117766 1.355202471e-38
-12.79430933 24.39796106 -6.877352554 1.290701544e-38
-13.1005992 23.90667436 -7.283436431 1.687143032e-38
-13.10069172 22.70880968 -7.279846057 1.604167105e-38
-13.10103708 22.34276478 -6.476526544 1.327543922e-38
-13.10066742 23.00693326 -7.283461298 1.55806915e-38
-13.10087867 22.60635738 -6.683361789 1.373641737e-38
-13.10095114 22.50685281 -6.582460868 1.364422174e-38
-13.10117726 22.90523814 -6.182897689 1.152336072e-38
-13.05234964 23.20628332 -6.882811341 1.207652049e-38
-12.85630978 24.29979098 -6.98423837 5.160043374e-39
-13.10079465 23.60708113 -6.682777848 1.281409954e-38
-13.1009014 23.20645143 -6.583148551 1.152335792e-38
-13.10081661 23.4060329 -6.682572902 1.235311999e-38
-13.10083804 22.42361514 -6.753325132 1.38286144e-38
-13.10064591 22.81827224 -7.344417699 1.567288713e-38
-13.05232222 22.60727186 -6.88312551 1.35520163e-38
-13.10074763 22.80688798 -7.183492402 1.622570218e-38
-13.10095507 22.40717963 -6.582988463 1.364458047e-38
-13.10090701 23.10623207 -6.583362793 1.262970688e-38
-13.00005666 22.80640111 -5.803176817 9.034798981e-39
-13.10073582 23.80661474 -7.083287596 1.65944819e-38
-13.10077645 23.20585532 -7.082963804 1.493495916e-38
-12.85636404 24.29992779 -6.782973836 5.896885343e-39
-13.05241336 23.60626239 -6.883169892 1.207651909e-38
-13.10070016 23.40683381 -7.183320647 1.539557858e-38
-13.1008535 23.8064115 -6.582375999 1.327543642e-38
-13.07517995 23.30645243 -6.982901475 1.198433607e-38
-12.89975768 23.20668882 -5.803024977 8.112844084e-39
-13.10085898 23.70684371 -6.583638533 1.29066539e-38
-13.10078561 23.10562863 -7.083139294 1.56725256e-38
-12.90370824 23.50441323 -5.802981232 8.758213493e-39
-13.07439791 24.10668653 -7.28361105 1.419739552e-38
-13.10101862 22.50665248 -6.482882843 1.336727472e-38
-13.10123971 22.90645221 -6.082971297 1.097054707e-38
-13.10097543 22.35178767 -6.554893727 1.355202611e-38
-13.10119118 22.70633036 -6.18281555 1.180030634e-38
-13.00010895 23.00656605 -5.80316528 8.850409123e-39
-13.07527517 23.2066621 -6.983058843 1.198433467e-38
-12.85626606 24.2998839 -6.883588919 5.436268729e-39
-13.0839826 23.60660252 -6.77757738 1.133860512e-38
-12.89969134 23.30658399 -5.803014543 8.666017863e-39
-13.10076507 23.40671503 -7.083265358 1.539557858e-38
-13.05243445 23.80646733 -6.883026664 1.281408553e-38
-13.10062058 23.60663196 -7.283187962 1.56725256e-38
-13.10084341 23.206717 -6.682797137 1.179994481e-38
-13.00029863 22.70666785 -5.803185606 8.481626603e-39
-13.08410463 22.90638024 -6.777506565 1.189214044e-38
-13.10074077 23.70669796 -7.083318259 1.622569938e-38
-13.10076665 22.52063825 -7.180869862 1.650228907e-38
-13.10083577 23.30754698 -6.683204634 1.244531422e-38
-12.90036173 23.40650583 -5.802991492 8.666376595e-39
-13.05233389 23.10568038 -6.883210747 1.235310878e-38
-13.05240277 23.50685837 -6.883163375 1.189176909e-38
-13.10069407 23.50705702 -7.183267265 1.548813434e-38
-13.0841232 23.10685863 -6.777437992 1.133896526e-38
-13.10071035 23.30666249 -7.183359536 1.530374308e-38
-13.08360222 23.70763378 -6.778076462 1.170738764e-38
-13.10064185 23.30696017 -7.283263008 1.511935182e-38
-13.0002385 23.60643962 -5.803087826 8.850409123e-39
-13.10135251 22.23802893 -5.978825116 1.143116789e-38
-13.04912685 22.25273472 -5.803446766 9.035163319e-39
-13.10071479 23.20649405 -7.183356812 1.484240199e-38
-13.10088976 22.50628548 -6.683109324 1.392080863e-38
-13.10080001 22.90665406 -7.083156821 1.604166965e-38
-13.10073944 22.45522155 -7.041441254 1.65944847e-38
-13.10065273 23.20724164 -7.283337438 1.456581651e-38
-13.05233675 22.51866655 -6.880696304 1.345982067e-38
-13.10067278 22.90668928 -7.283320374 1.576508276e-38
-13.0751726 23.50668334 -6.982898273 1.198433467e-38
-13.1007933 22.70749104 -7.082909449 1.641045217e-38
-13.10065672 23.10707649 -7.283355832 1.539594011e-38
-13.05231279 22.70572416 -6.883308745 1.345981927e-38
-13.05230045 22.90799347 -6.883570869 1.299847959e-38
-13.10067678 23.70682656 -7.183330461 1.622569938e-38
-13.10071316 22.53012717 -7.254486197 1.622606231e-38
-13.08425957 23.30636298 -6.77720153 1.097018134e-38
-13.00018635 22.90610077 -5.803171488 8.942604753e-39
-13.07541263 23.10646539 -6.983128878 1.253786998e-38
-13.10087371 23.5069472 -6.583276305 1.226128309e-38
-13.07547137 22.70597095 -6.983268615 1.364457907e-38
-13.10062945 23.50649603 -7.28373497 1.530374308e-38
-13.10097346 23.10604683 -6.482768862 1.235311999e-38
-13.10087261 22.70626789 -6.682816913 1.355202611e-38
-13.08850013 22.30658576 -5.888418856 9.218828706e-39
-13.10108034 23.10738979 -6.28260914 1.161555635e-38
-12.89972936 22.80646978 -5.803030847 9.127354745e-39
-13.10078353 23.90701139 -6.683355886 1.401264273e-38
-13.08091878 22.51507229 -6.987294327 1.447398241e-38
-12.79272969 24.37232791 -6.949833262 1.235456613e-38
-12.99993278 23.40669655 -5.803088781 8.850409123e-39
-13.1007502 22.70727113 -7.183368782 1.631825794e-38
-13.10075561 23.50667949 -7.083336267 1.558032857e-38
-13.1008707 22.80688516 -6.682746271 1.336763345e-38
-13.10126943 22.40694838 -6.083956173 1.179994901e-38
-13.05242029 24.00675857 -6.883101382 1.3643849e-38
-13.08424131 22.80609162 -6.777298764 1.207689183e-38
-12.72543135 23.09986554 -5.802808872 8.481986737e-39
-13.10068537 22.45038201 -6.999150237 1.622606372e-38
-13.10073691 22.90671124 -7.182787359 1.604130952e-38
-13.1007505 23.60665418 -7.083388746 1.585691686e-38
-13.07466711 22.8071541 -6.982655649 1.336763205e-38
-13.10067052 23.80676533 -7.183411046 1.65944833e-38
-13.10079208 23.00593878 -7.083563007 1.585691826e-38
-13.10063631 23.40655552 -7.283545165 1.511935182e-38
-13.1007069 22.61067252 -7.266220008 1.622570218e-38
-13.10095388 23.40718064 -6.483409083 1.198433747e-38
-13.10076085 22.60770208 -7.183019672 1.641045357e-38
-13.10061317 23.70673251 -7.283295263 1.604130812e-38
-13.07508742 22.90733647 -6.982883924 1.318323939e-38
-13.10060329 23.80682205 -7.283551893 1.650228767e-38
-13.08423618 23.00664716 -6.777119555 1.161555355e-38
-13.100686 23.60695513 -7.183174489 1.585691686e-38
-13.10080959 22.80758621 -7.082981577 1.631789641e-38
-13.07418318 22.23543758 -5.809089414 9.58797276e-39
-13.10090191 22.41589151 -6.680353437 1.392080863e-38
-13.10068114 22.80644217 -7.283282535 1.594947402e-38
-13.07537104 23.00665617 -6.982981344 1.290629377e-38
-13.07506119 22.60586303 -6.982786091 1.38286116e-38
-12.99966924 23.30709914 -5.803116005 8.758572225e-39
-13.1007289 23.00655434 -7.183595019 1.576508276e-38
-13.08921981 22.23529382 -5.888401606 9.126631675e-39
-13.1007744 23.30643187 -7.083263374 1.539557858e-38
-13.10081737 23.70633067 -6.682627075 1.318288206e-38
-13.10072339 23.10644237 -7.183284251 1.558033137e-38
-13.08375216 23.50572468 -6.77800965 1.106201823e-38
-12.81791943 24.32768701 -6.783942952 5.163302794e-39
-13.07446239 24.20676523 -7.183320427 1.447398241e-38
-13.10107703 22.60614108 -6.382962425 1.216872873e-38
-13.05230808 22.80653149 -6.883220094 1.327506788e-38
-13.07515339 23.60675744 -6.982924742 1.216872733e-38
-13.10085791 22.90656726 -6.682918073 1.318324219e-38
-13.10108064 23.30565957 -6.282699734 1.143116509e-38
-13.10093683 22.70700555 -6.582809039 1.336763345e-38
-13.07511866 23.90628922 -6.98281625 1.327507488e-38
-13.10121669 22.31092363 -6.180431619 1.216873013e-38
-13.07447405 24.10664352 -7.18348524 1.438178538e-38
-13.10108215 22.50678755 -6.382460038 1.216908886e-38
-13.10072932 23.90678804 -7.083293665 1.696326582e-38
-13.10115732 22.3210978 -6.279675547 1.253787278e-38
-13.1011366 22.70588725 -6.282724911 1.226128449e-38
-13.00086973 22.40739748 -5.8032026 9.219551776e-39
-13.0523853 23.40754697 -6.883247986 1.179957346e-38
-13.10078283 23.80666871 -6.683233159 1.355202471e-38
-13.10085493 23.00628038 -6.683128191 1.29984908e-38
-12.79236872 24.39077525 -6.800176155 1.253750424e-38
-13.10126061 22.6055077 -6.082738477 1.152336072e-38
-13.05240272 24.20688757 -6.88325644 1.419702418e-38
-13.07521346 23.70650258 -6.982921551 1.253750985e-38
-13.10075809 22.50920189 -7.081442337 1.659484483e-38
-13.10088965 23.30641162 -6.582741241 1.226092436e-38
-13.08338951 23.20564151 -6.778460628 1.050884305e-38
-12.85636486 24.2997392 -7.0717216 5.067489012e-39
-13.10087364 23.60621746 -6.582427808 1.253787138e-38
-13.028605 23.89801284 -5.803113877 8.666019264e-39
-13.10093636 22.80662311 -6.583143072 1.318324219e-38
-13.10132834 22.40532871 -5.982492461 1.143116649e-38
-13.10103083 23.20709957 -6.383129538 1.03244546e-38
-13.08298848 24.01170378 -6.776002021 1.161555215e-38
-13.10083652 23.10669455 -6.683182822 1.272226404e-38
-13.10082982 23.50681715 -6.683780663 1.253751125e-38
-13.09747587 24.01188259 -7.083432021 1.548813434e-38
-13.10115771 22.40681599 -6.282674416 1.253787278e-38
-13.1012382 22.80808353 -6.082430779 1.11545782e-38
-13.10092064 22.90636308 -6.583265346 1.29984922e-38
-12.81763398 24.32771807 -6.883611898 5.255499826e-39
-13.10119898 22.50657068 -6.183068645 1.207689323e-38
-13.06233948 24.10675939 -6.983585155 1.262970548e-38
-13.05231993 23.00678267 -6.882888663 1.262969707e-38
-13.07517743 23.80646301 -6.982799188 1.29066511e-38
-13.10077874 22.60619874 -7.083448852 1.65944847e-38
-13.08374778 23.40685699 -6.777840143 1.087798571e-38
-13.1010084 22.70706534 -6.482646335 1.309068783e-38
-13.10091995 23.0065416 -6.58259611 1.281409954e-38
-13.10101676 23.40624914 -6.382915966 1.106202104e-38
-13.10099598 22.80597866 -6.482762695 1.290629657e-38
-13.08837189 22.40519786 -5.887773738 9.126633076e-39
-13.10110145 23.2062276 -6.283146165 1.050884726e-38
-13.07453719 24.10672255 -7.083370854 1.438178538e-38
-13.10114282 22.50782865 -6.282779886 1.253787138e-38
-13.1009904 22.90566308 -6.482736858 1.272190391e-38
-13.04337635 23.97533678 -5.803121016 8.481629406e-39
-13.10125804 22.50549764 -6.082163886 1.161591648e-38
-13.05241101 24.10669069 -6.883314767 1.401263152e-38
-13.10106183 22.70602051 -6.382901278 1.198433747e-38
-13.10134058 22.30705118 -5.982583359 1.152336212e-38
-13.10103651 23.10742135 -6.382632635 1.133896806e-38
-13.08404249 23.90638108 -6.777443841 1.244531281e-38
-13.05243352 23.70621315 -6.882881345 1.244494287e-38
-13.10095527 23.30660545 -6.482293065 1.19846976e-38
-13.07505978 24.00826601 -6.984188757 1.272226124e-38
-13.10122004 22.40778693 -6.182651307 1.216873013e-38
-13.07452944 24.20641109 -7.083381655 1.456617804e-38
-13.10113466 22.60693292 -6.283375602 1.244567575e-38
-13.10098134 23.00613652 -6.483204654 1.253751125e-38
-13.08830186 22.60536664 -5.887950408 8.573459297e-39
-13.10106188 22.80784864 -6.382832722 1.179994621e-38
-13.1010457 22.90698785 -6.382998823 1.161555495e-38
-12.84034239 24.31304209 -7.056285212 4.886358574e-39
-13.10132212 22.50576292 -5.982758901 1.124713537e-38
-13.10127895 22.30775081 -6.082460981 1.180030774e-38
-13.0524264 23.9066282 -6.883152269 1.318286945e-38
-13.10124846 22.70626796 -6.083237653 1.133896946e-38
-13.10104564 23.0058074 -6.38291881 1.152335792e-38
-13.10119324 22.60566269 -6.18313668 1.198433887e-38
-13.06231221 24.20691889 -6.983560439 1.281409674e-38
-13.10088331 23.40668161 -6.583062211 1.216872873e-38
-13.08354629 23.80697635 -6.7780668 1.20765303e-38
-13.10111218 22.90615115 -6.282346973 1.198433887e-38
-12.79984397 23.00645293 -5.802912925 8.850769256e-39
-13.08828292 22.50474987 -5.887831185 8.850046186e-39
-13.06176499 24.30467156 -6.982262911 1.281409674e-38
-13.10116109 23.1066174 -6.182969079 1.115493833e-38
-13.00065099 23.50636573 -5.803075346 8.850409123e-39
-13.10102271 23.30677262 -6.382486414 1.106238117e-38
-12.90019235 22.90656214 -5.803030439 8.942963485e-39
-13.10093777 23.50664225 -6.48254934 1.19846976e-38
-13.10131787 22.60662641 -5.982776117 1.10627427e-38
-12.80025036 23.10656047 -5.802908015 8.758213493e-39
-13.10116964 23.00535689 -6.182013769 1.133896946e-38
-13.07144959 22.306741 -5.807879543 9.58797276e-39
-13.10093727 23.60720197 -6.483589612 1.226092436e-38
-12.83613631 24.559753 -6.708946923 1.152407818e-38
-13.07214303 24.17480376 -5.804514868 9.034078714e-39
-12.86033195 24.66459295 -6.756259055 1.087907451e-38
-12.7388786 23.28876408 -5.802822102 8.113204218e-39
-13.0653776 24.10568843 -5.803742227 8.666017863e-39
-13.07510917 24.20197083 -5.866412632 9.956030809e-39
-12.79274127 24.38686121 -6.681595492 1.198433046e-38
-12.85455046 24.63957682 -6.76526898 1.124821577e-38
-12.82885534 23.49809625 -5.802916615 8.573823634e-39
-12.8429464 24.58933619 -6.767224574 1.152480266e-38
-13.06805928 24.00603331 -5.803605387 8.481986737e-39
-13.07510901 24.10665231 -5.861987138 9.863833777e-39
-13.07505019 24.20640863 -5.961203297 1.032517206e-38
-13.07504326 24.10608466 -5.962175896 1.02326163e-38
-12.84036316 24.57829456 -6.835508332 1.170919532e-38
-13.08453143 24.00689454 -5.871415332 7.743698628e-39
-13.06822418 23.8059021 -5.803607653 8.574182367e-39
-13.08514757 23.90681751 -5.872879849 7.651502998e-39
-13.07498915 24.10648076 -6.061493463 1.069395598e-38
-12.81874953 24.32734474 -6.663800278 5.808310668e-39
-13.06818377 23.70721707 -5.803650848 8.020648454e-39
-13.09844381 24.00995572 -5.962418451 9.679083785e-39
-13.0749236 24.20632675 -6.161515649 1.133932679e-38
-13.00082548 23.60571237 -5.803086992 8.942603351e-39
-13.08512745 23.80581556 -5.872766051 7.651502998e-39
-13.00626925 23.90226173 -5.803077911 8.850409123e-39
-13.07493506 24.10615529 -6.162235091 1.124712976e-38
-12.85639455 24.30008137 -6.565738194 6.173832366e-39
-13.09844508 24.01081863 -6.061974849 1.041701036e-38
-13.07485702 24.20620363 -6.262247622 1.19846948e-38
-13.08525508 23.70592885 -5.873737122 6.914299494e-39
-12.90052439 23.20632784 -5.803009576 8.020648454e-39
-13.06836809 23.50580957 -5.803742101 8.666376595e-39
-13.10125123 23.80712124 -5.962116001 1.041700896e-38
-12.81767948 24.3277853 -6.76266772 5.993062062e-39
-13.0850287 23.60729637 -5.872087401 7.651502998e-39
-13.06802313 23.40526383 -5.803653532 8.666017863e-39
-13.07486599 24.10651351 -6.262302104 1.180030494e-38
-12.85677368 24.30007039 -6.468230658 6.173472233e-39
-12.99976995 23.80656359 -5.803059836 8.850409123e-39
-13.09856254 24.0096227 -6.162882875 1.115421667e-38
-12.99998858 23.30639124 -5.803138883 8.758213493e-39
-13.10125173 23.70590451 -5.961955478 1.041700896e-38
-13.07478837 24.20632341 -6.362752352 1.253786998e-38
-13.08525784 23.50756831 -5.873277406 7.55930877e-39
-13.06833707 23.30583881 -5.803658241 8.666017863e-39
-13.07476544 24.30122539 -6.462414821 1.309104516e-38
-13.07497933 24.20630969 -6.062599968 1.087798711e-38
-13.00072563 23.20622036 -5.803142208 8.112844084e-39
-13.10111259 23.90670464 -6.161606199 1.170775058e-38
-12.80015884 24.40455064 -6.961845729 1.299993694e-38
-13.10125236 23.60519837 -5.962186361 1.041700896e-38
-12.85631123 24.29996692 -6.7605373 6.357863492e-39
-13.09838044 24.01016469 -6.261409389 1.161555495e-38
-13.07479721 24.10583981 -6.361533357 1.235347732e-38
-13.08520548 23.40627305 -5.872838676 7.55930877e-39
-13.06810767 23.20705156 -5.803692767 7.928454225e-39
-12.81750723 24.32790371 -6.862672291 6.269290219e-39
-13.07472498 24.2063976 -6.461815121 1.299884813e-38
-13.10126166 23.50622274 -5.962135298 1.041700896e-38
-13.1011283 23.80606004 -6.162079669 1.143116509e-38
-13.06801076 23.10790014 -5.803724655 8.481628005e-39
-13.08515366 23.30524979 -5.872770862 7.467471872e-39
-13.10105766 23.90642589 -6.262743734 1.226092436e-38
-13.07470564 24.30100447 -6.562831744 1.355202331e-38
-13.1012703 23.40753918 -5.962063759 1.032481333e-38
-13.10112203 23.70626704 -6.162536662 1.124677383e-38
-12.85633538 24.3000348 -6.661675339 6.357864894e-39
-13.09827466 24.01016633 -6.363062465 1.170775058e-38
-13.07474058 24.10653861 -6.462635753 1.281445687e-38
-12.83204941 24.32119237 -6.568304606 4.97855e-39
-13.06816471 23.00648172 -5.803682724 8.573822233e-39
-13.08522661 23.20591093 -5.873447702 6.729908235e-39
-13.10120792 23.50569326 -6.062890249 1.078579568e-38
-13.10106199 23.80643725 -6.261351082 1.198433747e-38
-13.07465961 24.20604439 -6.56176138 1.336799078e-38
-13.10127693 23.30658426 -5.961533819 1.02326177e-38
-13.10113922 23.60649782 -6.161722174 1.10627413e-38
-13.10118035 23.80618386 -6.06217388 1.097054567e-38
-13.08526876 23.10765501 -5.872817643 7.375276242e-39
-13.10098906 23.90617413 -6.361461126 1.226128449e-38
-13.06813447 23.60630726 -5.803658581 8.666017863e-39
-13.06851079 22.90456253 -5.803745542 8.573822233e-39
-13.10121946 23.40640218 -6.061363675 1.078579428e-38
-12.90026781 22.8065036 -5.803046869 8.942964886e-39
-13.07461888 24.30100434 -6.66265538 1.392080583e-38
-12.90009073 23.10622254 -5.803014364 8.758213493e-39
-13.10106017 23.70590733 -6.262110298 1.170775198e-38
-13.10128706 23.2058936 -5.961990192 9.310299864e-39
-12.84442252 23.57661202 -5.80291522 8.481986737e-39
-13.10114072 23.50571385 -6.162416994 1.106238257e-38
-13.07467921 24.10646976 -6.562166054 1.318324079e-38
-13.09823708 24.00997728 -6.461565442 1.253750985e-38
-12.85638383 24.29981784 -6.962769355 5.805052649e-39
-13.0683565 23.90557084 -5.803638397 8.573823634e-39
-13.06808021 22.80459035 -5.803692591 8.666017863e-39
-12.84329926 24.31083387 -6.486646287 5.439168015e-39
-13.08509367 23.00746549 -5.872214067 7.375277644e-39
-13.10122438 23.90697242 -5.961201847 1.050884445e-38
-13.10100123 23.80646584 -6.362584891 1.198433747e-38
-13.00021045 22.70647941 -5.803165208 8.297236745e-39
-13.10122457 23.30721423 -6.061449241 1.069359865e-38
-12.9493568 23.86182618 -5.802855642 8.850769256e-39
-13.10107908 23.60658081 -6.261935486 1.152300059e-38
-13.1012957 23.10448728 -5.962618273 1.014042207e-38
-13.07460621 24.20643797 -6.662119521 1.37367747e-38
-13.06793058 22.70445648 -5.803629057 8.020648454e-39
-13.10119608 23.60634865 -6.0619494 1.087798991e-38
-13.08522064 22.90658048 -5.872928017 7.559668903e-39
-13.10115799 23.40660748 -6.162081252 1.097054567e-38
-12.93569393 23.7928429 -5.803003057 8.758213493e-39
-13.10092236 23.90631875 -6.46241926 1.309068503e-38
-13.00003347 22.6066901 -5.803169516 9.034801784e-39
-13.10121878 23.20599501 -6.062500614 9.771639549e-39
-13.10100155 23.7061511 -6.361352037 1.161591508e-38
-13.07445176 24.30083851 -6.754714026 1.419739272e-38
-13.10129944 23.00457352 -5.961841558 1.014042207e-38
-13.10108442 23.5067437 -6.26233925 1.133896946e-38
-13.10119391 23.70720114 -6.061777854 1.087799131e-38
-13.06833351 22.60544846 -5.803753772 8.850409123e-39
-12.85634286 24.29990149 -6.861224919 6.450057721e-39
-13.098001 24.01071188 -6.562794329 1.299884953e-38
-13.10117674 23.90517489 -6.06222003 1.11545768e-38
-13.08524658 22.80627977 -5.872990692 7.836255793e-39
-13.10115843 23.30700587 -6.161437616 1.097018694e-38
-13.10093855 23.80603256 -6.461562902 1.272190251e-38
-13.07460574 24.10620398 -6.661919413 1.355202331e-38
-13.10122788 23.1052221 -6.061854884 1.060176315e-38
-13.10100493 23.60604178 -6.362491908 1.133896946e-38
-13.10131015 22.90705905 -5.962352596 1.02326177e-38
-13.06810901 22.50690093 -5.80371557 8.942604753e-39
-13.08524975 22.70539873 -5.872682936 7.467114541e-39
-13.10107614 23.40534128 -6.26217576 1.124677383e-38
-13.07442739 24.20623521 -6.754603948 1.401300286e-38
-13.1011676 23.2065652 -6.162271538 1.02326191e-38
-13.10085704 23.9061211 -6.561696045 1.373605584e-38
-13.04923112 22.35083379 -5.803238589 9.126640083e-39
-13.10124717 23.0059176 -6.062556763 1.069360005e-38
-13.02114239 22.41982765 -5.803232627 8.942967689e-39
-13.05237157 23.4070056 -6.863315219 1.106164829e-38
-13.10065361 22.83869669 -7.316340382 1.521154885e-38
-13.07448443 24.10635993 -7.162470251 1.47505679e-38
-13.10109933 22.50585945 -6.361938649 1.198505914e-38
-13.10118455 22.9079284 -6.161861772 1.115493833e-38
-12.91712047 23.70099233 -5.802967365 8.112844084e-39
-13.10101854 22.70621817 -6.462887071 1.253751125e-38
-13.10111322 23.10531572 -6.261849741 1.143116509e-38
-13.10127876 22.34615032 -6.051277458 1.124713537e-38
-13.09781048 24.01047485 -7.162575666 1.622533924e-38
-13.10110967 22.42859495 -6.358148546 1.207689603e-38
-12.79974821 23.3063714 -5.802896447 8.481626603e-39
-13.10132084 22.80707692 -5.961801966 1.041700896e-38
-13.06704442 23.50598393 -6.966149696 1.133860372e-38
-13.10096997 23.30622706 -6.46224261 1.170774918e-38
-13.07442218 24.10635753 -7.262654699 1.465837227e-38
-12.80972608 23.40157875 -5.802911583 8.481626603e-39
-13.10102495 22.5065478 -6.461279108 1.272190251e-38
-13.10112627 22.90701991 -6.261425192 1.170775198e-38
-13.10095025 22.70692496 -6.562246573 1.299885093e-38
-12.82360787 24.5058374 -6.862134696 1.217017487e-38
-13.09778403 24.01032868 -7.262574468 1.622534065e-38
-13.10069705 22.80750077 -7.261047653 1.548849587e-38
-13.10103338 22.43986971 -6.457497554 1.253787138e-38
-13.10095511 22.60611802 -6.5618703 1.318288346e-38
-13.1011821 23.00656308 -6.161711164 1.10627413e-38
-13.10067008 23.10658469 -7.262548356 1.502751632e-38
-13.10088251 22.70618575 -6.662182394 1.318324359e-38
-13.05234704 23.30577991 -6.862091739 1.106164969e-38
-13.10079336 23.70665392 -6.662188574 1.318324079e-38
-13.1009012 23.3060533 -6.562083183 1.207689323e-38
-13.10081242 23.50592582 -6.661785305 1.244531562e-38
-13.10083981 22.52223547 -6.743125806 1.336763625e-38
-13.10064534 22.91516635 -7.327005041 1.511935322e-38
-13.05234269 22.70725456 -6.862632728 1.235347031e-38
-13.10075047 22.90700344 -7.162573467 1.5672527e-38
-13.10097259 22.50602455 -6.562377567 1.318324359e-38
-13.10091897 23.20584321 -6.562035347 1.124676963e-38
-12.99977874 22.90650081 -5.803159694 8.850409123e-39
-13.10073977 23.90645994 -7.062439933 1.705546145e-38
-13.10078629 23.30558437 -7.062113014 1.511935182e-38
-13.05242324 23.70591018 -6.862678309 1.179957346e-38
-13.10070672 23.50641242 -7.162598715 1.539593871e-38
-13.06707822 23.40588568 -6.966330276 1.11545726e-38
-12.89965231 23.30617333 -5.803000923 8.666017863e-39
-13.10086889 23.8066066 -6.562260467 1.336727332e-38
-13.10079331 23.20547922 -7.0623929 1.465837087e-38
-12.90188929 23.60512824 -5.802978807 8.850409123e-39
-13.07441758 24.20643587 -7.262526696 1.484276493e-38
-13.10102367 22.60649197 -6.462119474 1.262970688e-38
-13.09762784 24.01039887 -7.362616476 1.539593731e-38
-13.10097716 22.4496 -6.540492176 1.309104796e-38
-13.10120148 22.80621107 -6.162076645 1.133896946e-38
-13.00023027 23.10637852 -5.803150304 8.758213493e-39
-13.0672814 23.30576844 -6.966465589 1.133860372e-38
